ncols         647
nrows         32
xllcorner     777124.431665
yllcorner     9240249.73818
cellsize      25
NODATA_value  -9999
694 695 697 700 698 698 697 698 697 692 692 688 688 692 699 699 702 701 702 703 703 702 704 706 708 711 711 714 713 713 714 714 713 712 712 714 714 715 713 711 710 710 710 709 709 711 711 714 719 720 719 719 719 719 722 725 728 728 729 729 730 731 731 732 735 737 737 737 737 741 744 744 744 742 740 741 742 742 742 744 747 748 748 748 748 747 746 747 747 750 751 752 754 754 755 756 757 758 758 758 757 756 759 764 764 765 764 764 765 765 765 763 764 767 767 769 769 766 764 764 761 758 759 759 761 761 764 765 763 763 763 763 763 765 767 767 770 770 769 767 767 768 768 768 771 772 772 773 773 773 774 774 775 777 781 782 782 786 789 788 788 788 788 789 790 791 791 790 791 791 792 794 794 798 801 802 804 804 805 807 808 813 813 815 814 815 818 818 817 818 820 822 824 824 825 826 828 828 828 828 828 828 829 829 829 829 832 833 833 832 832 831 832 832 836 838 838 839 840 840 842 844 844 845 845 845 846 847 849 849 851 852 852 851 851 851 853 855 855 852 852 845 835 831 824 824 820 830 843 854 854 863 869 873 872 872 873 875 876 876 876 875 873 870 867 867 867 870 870 871 872 872 876 875 869 866 866 869 874 878 880 880 882 883 884 884 884 885 886 888 888 888 888 889 890 889 882 882 867 861 860 867 867 880 889 892 891 891 892 892 893 894 894 894 894 894 893 893 893 893 894 897 899 899 898 895 894 889 889 886 890 892 893 893 893 892 890 887 886 886 887 889 893 898 898 902 903 898 892 892 890 892 894 894 894 898 903 910 918 916 916 913 916 919 925 925 930 928 928 931 931 930 929 931 930 930 929 928 929 930 930 930 931 933 934 933 933 934 934 933 930 930 927 926 927 927 927 926 923 918 920 920 925 931 934 936 935 935 928 908 902 896 896 893 894 900 910 910 923 930 934 934 934 932 923 907 898 898 891 890 893 893 897 897 903 910 918 924 924 930 933 936 936 936 933 930 930 931 931 935 939 944 949 949 946 937 928 926 926 926 931 930 931 932 932 932 930 927 922 922 917 909 891 880 880 877 876 883 894 899 899 900 899 903 910 910 917 922 926 931 931 936 934 934 933 933 933 931 922 913 913 906 898 890 882 870 870 866 870 882 891 891 896 896 894 888 888 876 866 861 864 864 876 887 894 891 890 890 899 910 921 929 929 936 941 943 945 945 946 945 947 950 950 953 955 954 957 957 958 959 959 959 957 957 958 957 958 960 960 960 958 957 957 957 960 966 970 975 975 981 986 988 987 989 989 993 993 989 985 985 981 976 968 962 962 958 955 952 946 946 937 929 922 919 919 923 934 946 959 969 969 976 979 979 975 975 968 956 943 935 935 932 931 931 928 928 923 924 929 936 945 945 956 961 970 982 982 992 1001 1008 1016 1016 1022 1023 1026 1023 1023 1021 1018 1023 1022 1022 1019 1013 1004 1001 999
695 696 700 700 697 697 698 700 698 695 695 693 692 698 700 700 701 702 702 703 703 703 705 708 710 713 713 713 711 710 712 712 712 710 709 711 711 711 709 708 708 708 708 708 711 714 714 718 722 724 724 723 723 720 723 728 730 730 733 734 732 733 733 735 737 738 737 737 738 741 743 743 743 742 741 743 743 745 745 746 748 749 749 749 749 748 747 749 749 750 751 752 755 755 757 756 757 757 756 756 757 758 760 763 763 762 763 764 765 765 763 762 764 766 766 767 766 763 762 762 759 758 759 760 762 762 763 762 761 762 762 762 763 764 767 767 769 770 768 766 766 766 767 768 770 771 771 772 773 773 774 774 776 779 782 783 783 784 786 787 788 788 788 789 789 787 787 787 788 790 793 797 797 798 800 802 803 803 805 807 810 812 812 812 811 812 818 818 816 817 819 822 823 823 823 825 827 827 827 827 826 827 828 828 828 829 831 832 832 830 830 829 831 831 833 834 836 839 840 840 841 842 842 843 843 843 844 845 848 848 850 850 849 849 849 850 852 853 851 847 847 839 830 824 820 820 824 835 847 856 856 865 871 873 872 872 873 874 875 875 875 873 868 864 863 864 864 865 867 871 869 869 869 870 866 865 865 869 871 875 879 879 881 881 881 882 882 883 885 886 888 887 887 887 888 885 874 874 858 857 858 870 870 881 887 889 890 890 891 892 892 893 892 892 892 892 891 891 891 891 893 896 897 897 894 891 889 885 885 883 886 888 889 889 889 889 887 883 880 880 880 880 887 892 892 894 893 889 886 886 886 889 896 904 904 906 906 911 916 915 915 913 915 916 920 920 923 922 924 928 928 928 927 927 928 928 927 927 928 929 929 930 931 933 934 934 934 934 934 932 925 925 921 921 922 923 923 923 919 915 916 916 920 925 931 934 935 935 932 926 909 899 899 890 890 896 907 907 919 926 930 931 931 928 917 904 896 896 888 887 891 895 899 899 906 914 922 929 929 934 934 933 931 931 926 924 926 930 930 936 940 943 943 943 936 927 918 916 918 918 922 925 926 925 925 922 921 919 917 917 911 902 887 876 876 874 877 885 893 895 895 895 897 903 913 913 920 923 925 929 929 933 930 927 928 928 930 933 926 916 916 908 900 892 883 873 873 865 865 870 882 882 891 893 892 883 883 870 861 858 862 862 873 886 897 904 914 914 918 921 927 934 934 938 941 943 945 945 945 947 950 953 953 955 954 952 955 955 957 956 953 948 946 946 948 949 949 951 951 951 952 954 958 958 962 968 974 978 978 982 985 985 983 983 983 983 984 982 979 979 975 968 961 954 954 949 944 942 939 939 930 923 919 918 918 924 936 949 958 965 965 974 977 977 973 973 965 954 945 936 936 925 923 920 921 921 922 927 934 942 953 953 961 967 974 983 983 991 998 1005 1012 1012 1020 1020 1012 1013 1013 1005 1007 1013 1015 1015 1013 1007 1001 996 990
695 696 699 699 698 698 699 701 701 700 700 698 696 698 700 700 702 703 705 706 706 706 708 709 708 710 710 710 708 709 711 711 710 709 708 707 707 707 707 707 707 707 706 707 712 715 715 720 724 725 726 725 725 721 724 728 732 732 736 736 735 735 735 736 738 739 738 738 739 740 742 742 742 742 742 743 744 746 746 747 748 749 750 750 750 749 749 751 751 752 751 751 754 754 755 755 756 756 756 756 758 759 761 763 763 762 763 764 763 763 763 762 764 766 766 765 764 762 760 760 757 757 758 760 761 761 761 760 760 762 762 763 763 764 767 767 768 768 766 765 765 766 768 768 769 769 769 771 773 774 775 775 778 780 781 782 782 783 784 786 787 787 787 786 784 785 785 785 787 790 795 798 798 799 801 803 804 804 804 805 808 809 809 810 810 815 816 816 816 817 819 821 822 822 823 825 826 825 825 825 825 824 826 826 828 829 830 829 829 828 828 829 830 830 831 832 834 837 838 838 839 839 840 841 841 841 842 844 846 846 848 849 848 848 848 849 852 851 848 843 843 834 824 817 816 816 824 838 850 857 857 863 869 870 870 870 871 872 873 873 873 869 865 862 860 859 859 858 861 865 865 865 864 864 863 864 864 868 870 873 876 876 879 880 880 882 882 882 883 885 886 886 886 885 885 877 862 862 856 854 865 876 876 882 886 888 889 889 890 890 889 889 890 890 891 890 889 889 889 890 893 896 896 896 892 889 888 884 884 881 883 884 884 884 884 887 885 881 877 877 876 879 886 890 890 889 887 886 885 885 888 895 902 908 908 909 908 910 914 914 914 914 915 916 918 918 920 921 924 926 926 925 925 925 925 925 926 926 927 929 929 930 931 932 932 933 933 933 933 930 923 923 916 917 916 916 916 917 917 914 911 911 914 920 928 931 931 931 932 927 916 901 901 891 887 889 899 899 914 922 925 925 925 922 912 901 892 892 884 886 894 902 906 906 910 917 923 928 928 933 931 928 924 924 922 922 925 930 930 936 939 938 934 934 926 916 910 910 913 913 917 922 922 918 918 914 910 908 906 906 903 897 885 876 876 874 877 884 887 888 888 892 897 905 915 915 921 922 921 925 925 924 923 922 923 923 926 929 925 917 917 906 900 892 884 874 874 864 859 863 875 875 886 890 889 880 880 868 859 853 854 854 864 882 899 912 920 920 922 924 931 935 935 937 941 943 944 944 945 947 951 952 952 955 953 952 953 953 954 950 942 937 936 936 939 942 945 947 947 949 953 958 961 961 964 970 976 980 980 983 982 980 976 974 974 974 974 974 972 972 968 960 954 949 949 942 935 932 927 927 920 917 918 923 923 933 945 952 959 966 966 971 974 974 969 969 960 951 944 936 936 925 916 915 918 918 923 931 938 949 961 961 969 975 980 988 988 991 997 1005 1011 1011 1015 1014 1007 999 999 999 999 1003 1007 1007 1004 1001 997 994 993
694 696 697 699 699 699 699 700 701 700 700 698 698 699 701 701 702 703 705 707 707 708 708 706 705 706 706 708 708 709 709 709 708 708 708 706 706 706 707 708 708 708 710 714 718 720 720 724 725 725 726 726 726 725 726 731 733 733 736 736 736 735 735 735 736 738 739 739 739 741 742 742 742 741 742 741 743 746 746 748 749 750 750 750 750 750 750 751 751 752 750 750 751 751 752 753 755 756 757 757 758 759 760 761 761 761 762 762 762 762 762 761 762 764 764 763 761 759 756 756 754 754 756 758 759 759 759 758 759 761 761 762 761 762 764 764 765 766 765 767 767 768 768 768 770 773 773 775 776 778 778 778 779 779 780 781 781 781 781 783 785 785 784 783 782 784 784 786 788 792 796 798 798 799 801 802 803 803 803 804 806 807 807 808 810 814 815 815 815 817 819 821 822 822 823 824 824 824 824 825 825 824 824 824 825 827 828 826 826 825 827 829 830 830 831 832 833 835 836 836 837 839 840 841 841 841 843 845 846 846 847 848 848 847 847 849 852 850 843 834 834 825 816 814 821 821 834 845 854 858 858 863 868 869 869 869 870 871 872 869 869 864 863 859 855 854 854 855 857 859 860 860 862 862 864 865 865 867 871 873 874 874 877 876 878 880 880 881 882 883 885 885 885 885 881 870 857 857 854 860 874 885 885 888 889 889 889 889 888 886 886 885 889 889 890 889 888 888 888 889 893 897 898 898 894 891 887 882 882 880 879 880 882 882 881 882 881 878 879 879 878 884 890 891 891 890 891 890 892 892 898 902 906 910 910 911 910 911 913 915 915 917 916 916 918 918 921 921 923 925 925 924 923 924 924 924 925 926 927 928 928 929 930 930 930 931 931 931 931 928 920 920 913 911 910 911 911 913 914 912 908 908 910 918 925 925 925 925 927 923 912 900 900 892 887 888 896 896 908 915 920 917 917 913 905 895 884 884 881 885 898 908 913 913 917 921 924 925 925 926 925 921 917 917 918 922 926 930 930 933 934 932 926 926 919 908 902 902 905 905 913 920 921 916 916 908 902 899 898 898 897 892 884 876 876 871 873 878 882 885 885 891 897 904 913 913 919 919 918 917 917 917 917 917 919 919 922 923 920 915 915 908 901 893 885 876 876 867 860 860 868 868 879 886 884 874 874 865 856 850 851 851 860 875 893 910 917 917 920 924 931 934 934 936 939 943 945 945 942 945 948 949 949 950 949 948 950 950 947 941 936 933 936 936 939 947 952 953 953 956 960 964 967 967 971 978 982 983 983 982 978 974 968 966 966 966 967 965 962 962 958 952 946 942 942 936 929 923 916 916 912 912 920 933 933 944 953 958 964 968 968 968 970 967 961 961 953 948 942 933 933 921 912 914 919 919 926 935 945 953 964 964 975 981 985 991 991 995 999 1008 1012 1012 1011 1007 1002 994 994 992 995 999 1001 1001 1000 996 991 990 995
691 693 696 698 699 699 698 699 700 700 700 699 701 702 703 703 703 702 704 706 706 706 706 705 704 705 705 706 707 706 707 707 707 707 708 707 707 706 707 709 709 709 712 716 720 724 724 724 725 726 727 728 728 727 729 733 734 734 735 736 736 735 735 734 735 737 739 739 740 741 742 742 742 741 741 742 743 746 746 748 749 749 749 749 749 749 749 749 749 749 750 750 751 751 753 752 753 755 756 756 758 759 759 760 760 760 762 762 761 761 761 760 760 760 760 760 757 755 754 754 754 754 754 756 757 757 758 758 759 760 760 761 760 762 764 764 765 766 767 768 768 769 768 770 774 777 777 778 780 780 780 780 779 778 778 778 778 778 778 781 782 782 783 783 784 787 787 788 788 791 794 797 797 800 801 802 803 803 803 803 806 808 808 809 810 812 814 814 815 816 818 820 820 820 821 822 822 822 822 824 825 824 823 823 824 825 825 824 824 823 826 828 829 829 830 831 833 834 835 835 837 840 840 842 842 844 845 847 847 847 847 848 848 849 849 850 850 846 837 821 821 816 813 816 832 832 843 851 858 859 859 863 868 869 868 868 869 870 870 866 866 862 860 856 852 855 855 856 855 856 858 858 861 864 866 866 866 868 871 872 872 872 875 876 876 879 879 879 881 882 883 883 883 881 877 865 858 858 858 866 876 885 885 889 890 889 886 886 886 886 885 885 888 888 889 888 887 886 886 887 892 898 899 899 896 890 886 880 880 878 876 876 877 877 878 878 878 880 884 884 887 890 892 892 892 894 898 900 901 901 904 907 909 910 910 911 911 912 914 917 917 918 917 916 916 916 918 918 923 924 924 922 922 923 924 924 924 926 926 926 926 926 926 928 930 930 930 931 931 925 916 916 909 906 906 907 907 909 911 910 906 906 908 914 919 920 919 919 918 917 911 897 897 886 885 885 893 893 900 907 910 910 910 903 895 886 881 881 881 888 899 911 918 918 920 922 921 919 919 919 916 913 914 914 917 924 929 929 929 927 926 925 919 919 913 903 897 895 895 895 906 916 920 915 915 907 900 895 893 893 891 887 881 873 873 869 870 875 882 884 884 892 899 903 908 908 914 914 914 912 912 911 911 911 913 913 917 919 918 913 913 908 901 893 887 881 881 872 863 860 866 866 875 880 875 868 868 862 856 849 850 850 859 872 888 900 909 909 915 923 930 934 934 935 938 942 941 941 940 940 944 947 947 946 945 944 945 945 942 936 933 934 941 941 953 958 960 962 962 966 969 972 976 976 981 988 988 984 984 980 974 967 961 959 959 960 960 958 954 954 949 942 937 934 934 928 923 916 910 910 907 910 922 935 935 947 954 959 965 965 965 963 959 958 955 955 948 942 935 924 924 914 909 913 921 921 932 943 950 956 969 969 980 986 991 997 997 1000 1005 1010 1011 1011 1009 1003 997 990 990 987 989 998 999 999 995 990 986 990 999
691 693 696 698 699 699 698 699 700 700 700 699 701 702 703 703 703 702 704 706 706 706 706 705 704 705 705 706 707 706 707 707 707 707 708 707 707 706 707 709 709 709 712 716 720 724 724 724 725 726 727 728 728 727 729 733 734 734 735 736 736 735 735 734 735 737 739 739 740 741 742 742 742 741 741 742 743 746 746 748 749 749 749 749 749 749 749 749 749 749 750 750 751 751 753 752 753 755 756 756 758 759 759 760 760 760 762 762 761 761 761 760 760 760 760 760 757 755 754 754 754 754 754 756 757 757 758 758 759 760 760 761 760 762 764 764 765 766 767 768 768 769 768 770 774 777 777 778 780 780 780 780 779 778 778 778 778 778 778 781 782 782 783 783 784 787 787 788 788 791 794 797 797 800 801 802 803 803 803 803 806 808 808 809 810 812 814 814 815 816 818 820 820 820 821 822 822 822 822 824 825 824 823 823 824 825 825 824 824 823 826 828 829 829 830 831 833 834 835 835 837 840 840 842 842 844 845 847 847 847 847 848 848 849 849 850 850 846 837 821 821 816 813 816 832 832 843 851 858 859 859 863 868 869 868 868 869 870 870 866 866 862 860 856 852 855 855 856 855 856 858 858 861 864 866 866 866 868 871 872 872 872 875 876 876 879 879 879 881 882 883 883 883 881 877 865 858 858 858 866 876 885 885 889 890 889 886 886 886 886 885 885 888 888 889 888 887 886 886 887 892 898 899 899 896 890 886 880 880 878 876 876 877 877 878 878 878 880 884 884 887 890 892 892 892 894 898 900 901 901 904 907 909 910 910 911 911 912 914 917 917 918 917 916 916 916 918 918 923 924 924 922 922 923 924 924 924 926 926 926 926 926 926 928 930 930 930 931 931 925 916 916 909 906 906 907 907 909 911 910 906 906 908 914 919 920 919 919 918 917 911 897 897 886 885 885 893 893 900 907 910 910 910 903 895 886 881 881 881 888 899 911 918 918 920 922 921 919 919 919 916 913 914 914 917 924 929 929 929 927 926 925 919 919 913 903 897 895 895 895 906 916 920 915 915 907 900 895 893 893 891 887 881 873 873 869 870 875 882 884 884 892 899 903 908 908 914 914 914 912 912 911 911 911 913 913 917 919 918 913 913 908 901 893 887 881 881 872 863 860 866 866 875 880 875 868 868 862 856 849 850 850 859 872 888 900 909 909 915 923 930 934 934 935 938 942 941 941 940 940 944 947 947 946 945 944 945 945 942 936 933 934 941 941 953 958 960 962 962 966 969 972 976 976 981 988 988 984 984 980 974 967 961 959 959 960 960 958 954 954 949 942 937 934 934 928 923 916 910 910 907 910 922 935 935 947 954 959 965 965 965 963 959 958 955 955 948 942 935 924 924 914 909 913 921 921 932 943 950 956 969 969 980 986 991 997 997 1000 1005 1010 1011 1011 1009 1003 997 990 990 987 989 998 999 999 995 990 986 990 999
690 693 696 698 698 698 697 699 701 701 701 701 701 703 704 704 703 703 705 706 706 704 705 706 705 706 706 705 704 704 704 704 704 704 707 709 709 708 710 713 715 715 716 717 721 724 724 724 725 727 728 729 729 729 731 734 734 734 736 737 735 733 733 733 734 736 738 738 739 740 740 741 741 741 742 742 743 746 746 748 748 747 747 747 747 748 748 748 748 748 750 752 754 754 755 755 754 754 755 755 757 758 758 759 759 761 762 762 760 760 760 760 758 756 756 756 755 754 753 753 754 753 753 754 755 755 756 757 759 762 762 764 764 765 766 766 767 767 768 770 770 770 771 774 776 777 777 778 779 780 781 781 779 776 775 776 776 777 779 781 782 782 782 785 787 789 789 790 790 792 794 796 796 800 802 802 803 803 803 804 805 808 808 810 811 812 814 814 816 816 818 819 820 820 820 820 820 821 821 822 823 823 823 823 823 823 824 823 823 823 826 827 828 828 830 832 833 834 835 835 838 839 840 843 843 843 846 847 847 847 847 847 849 851 851 852 848 840 828 814 814 812 814 826 841 841 849 854 859 859 859 861 864 866 866 866 867 867 867 864 864 861 858 853 851 853 853 854 855 855 856 856 861 865 866 867 867 867 869 871 871 871 874 874 875 878 878 880 880 881 882 880 880 876 870 862 858 858 861 868 876 886 886 887 887 886 884 884 883 885 885 885 886 886 886 885 885 887 887 890 892 898 898 898 893 889 885 880 880 878 876 873 873 873 876 881 881 884 888 888 891 894 893 892 892 898 904 905 906 906 908 909 909 910 910 911 911 912 915 917 917 916 915 915 915 915 915 919 922 923 923 921 920 921 922 922 922 924 926 925 925 923 925 929 932 930 930 929 928 922 914 914 907 904 903 905 905 906 908 908 906 906 907 912 915 918 917 917 916 913 907 896 896 888 885 885 890 890 897 904 906 900 900 892 888 883 881 881 886 894 903 914 919 919 918 917 914 912 912 909 909 913 914 914 918 924 929 927 927 922 918 916 913 913 907 899 892 889 890 890 897 907 915 914 914 908 900 895 891 891 886 881 875 869 869 865 869 876 885 891 891 895 899 901 907 907 910 910 907 904 904 904 905 907 910 910 912 917 914 910 910 905 899 892 888 883 883 871 862 862 868 868 874 875 870 864 864 860 855 848 850 850 860 872 883 895 904 904 911 921 929 932 932 934 936 938 938 938 937 937 937 937 937 937 939 939 937 937 934 930 931 939 947 947 961 968 971 973 973 977 980 981 984 984 991 996 995 986 986 978 969 961 956 955 955 954 954 953 949 949 941 934 928 922 922 917 912 908 905 905 911 919 929 939 939 949 955 960 963 959 959 954 950 947 943 943 939 935 926 916 916 909 909 916 925 925 936 947 954 961 972 972 982 987 994 998 998 1002 1006 1009 1010 1010 1007 1001 995 987 987 983 984 985 992 992 986 982 982 988 997
689 691 693 696 697 697 697 699 700 701 701 700 701 702 703 703 704 705 706 706 706 705 705 704 704 705 705 704 703 703 702 702 702 703 707 710 710 711 712 716 719 719 721 721 723 724 724 724 725 727 728 729 729 729 730 732 734 734 736 737 735 733 733 733 734 736 737 737 737 738 739 741 741 742 743 743 743 745 745 747 747 746 746 746 747 748 748 748 748 749 750 752 753 753 755 755 755 755 756 756 758 758 757 759 759 760 761 761 759 759 759 758 756 753 753 753 753 752 752 752 752 752 751 752 754 754 756 758 762 767 767 768 768 768 768 768 767 768 769 770 770 771 773 775 776 775 775 777 779 780 780 780 778 775 773 775 775 778 779 780 781 781 783 785 787 790 790 791 793 795 795 796 796 799 801 801 802 802 803 804 805 811 811 811 811 813 816 816 817 817 819 820 820 820 819 819 821 821 821 822 822 821 821 821 821 822 823 822 822 823 825 827 828 828 830 832 833 834 836 836 837 837 838 838 838 838 840 843 844 844 846 847 847 851 851 849 845 836 824 814 814 810 815 833 844 844 851 856 858 859 859 860 861 863 864 864 864 865 864 862 862 859 855 851 851 849 849 850 854 857 858 858 862 867 866 866 866 866 868 869 870 870 871 873 874 877 877 880 879 880 881 879 879 872 864 857 858 858 866 871 880 886 886 886 886 885 882 882 881 883 884 883 882 882 882 882 884 890 890 892 894 896 896 896 892 888 885 880 880 878 874 870 872 872 879 885 886 887 889 889 893 895 896 897 897 901 905 907 908 908 908 909 909 910 910 910 910 910 913 913 913 912 914 914 913 913 915 918 921 923 923 921 921 921 920 920 919 921 926 924 924 923 927 929 929 928 928 926 925 923 915 915 909 904 902 902 902 903 904 905 905 905 906 909 913 915 915 915 914 911 906 897 897 890 885 881 882 882 895 902 903 896 896 889 883 877 884 884 894 901 908 914 916 916 914 910 906 904 904 902 905 911 915 915 918 921 924 922 922 916 913 911 906 906 899 892 885 883 885 885 894 904 908 908 908 904 900 896 890 890 884 877 869 864 864 867 873 882 889 893 893 896 897 901 904 904 906 904 901 898 898 898 900 905 908 908 909 911 910 905 905 901 894 890 888 882 882 868 858 859 865 865 872 872 866 863 863 859 852 847 847 847 858 871 883 894 902 902 911 920 927 929 929 931 933 934 935 935 936 934 929 927 927 927 929 931 929 929 929 931 934 943 954 954 963 971 977 983 983 985 989 991 993 993 994 997 993 984 984 973 963 956 951 949 949 949 949 947 941 941 933 927 920 913 913 906 904 904 908 908 918 929 935 942 942 952 959 960 959 952 952 947 939 934 930 930 928 925 917 911 911 910 913 920 928 928 936 946 955 963 971 971 978 983 989 994 994 1000 1004 1007 1007 1007 1006 1005 998 987 987 981 977 977 975 975 976 975 977 986 998
690 690 691 693 695 695 696 697 698 700 700 700 699 700 701 701 704 704 702 703 703 704 703 700 703 704 704 704 703 703 703 703 703 706 708 711 711 712 714 716 719 719 722 724 725 724 724 724 725 726 726 727 727 727 728 730 732 732 736 737 736 734 734 734 735 736 738 738 736 736 739 741 741 743 743 743 744 746 746 746 745 745 746 746 747 748 748 749 749 750 751 752 752 752 754 755 755 754 755 755 756 757 757 757 757 758 759 759 757 757 756 755 753 750 750 751 751 751 750 750 752 752 750 751 754 754 758 762 768 771 771 770 769 769 768 768 768 769 769 769 769 770 773 774 774 774 774 775 777 777 776 776 775 773 774 776 776 778 779 781 782 782 784 786 787 789 789 792 794 796 796 796 796 799 800 801 802 802 803 804 807 810 810 811 811 813 815 815 815 815 819 820 820 820 819 819 821 821 821 821 821 820 819 819 819 821 822 822 822 823 825 826 828 828 829 831 832 833 834 834 834 835 836 836 836 837 838 841 842 842 845 846 846 845 845 841 839 830 824 813 813 809 816 832 844 844 850 855 856 859 859 859 860 861 862 862 863 864 864 861 861 858 853 850 848 847 847 847 852 858 857 857 860 865 865 864 864 865 867 868 868 868 869 871 873 875 875 877 878 879 880 876 876 867 858 857 864 864 873 877 881 884 884 884 885 885 882 882 880 881 882 881 879 879 880 882 886 889 889 891 894 897 894 894 888 883 883 879 879 876 874 872 875 875 885 887 888 888 890 890 893 896 899 901 901 901 903 905 906 906 906 908 908 909 909 909 908 908 910 911 911 912 912 912 911 911 914 917 919 921 921 923 922 921 918 918 917 919 921 921 921 923 927 927 926 927 927 926 925 923 919 919 913 905 900 901 901 900 899 901 902 902 903 906 910 911 911 911 910 909 905 899 899 891 885 879 878 878 882 896 899 893 893 885 877 878 886 886 896 904 909 912 912 912 908 904 902 900 900 900 903 909 914 914 918 920 921 917 917 911 907 903 898 898 891 884 878 877 882 882 891 900 902 900 900 899 897 894 888 888 881 872 863 859 859 866 879 886 889 892 892 894 895 897 901 901 901 899 897 896 896 895 896 901 905 905 904 904 902 898 898 894 890 889 887 879 879 865 857 856 861 861 867 867 863 861 861 856 849 845 848 848 860 871 879 891 904 904 915 923 926 928 928 930 931 933 935 935 935 933 925 921 921 922 925 926 927 927 931 936 941 951 957 957 963 970 978 985 985 988 991 991 987 987 986 988 985 979 979 968 958 951 944 940 940 941 942 939 933 933 924 917 910 904 904 902 902 907 914 914 929 936 941 948 948 956 960 957 951 945 945 938 927 921 918 918 915 913 910 908 908 912 917 923 931 931 937 944 952 961 970 970 974 978 984 988 988 994 1001 1003 1004 1004 1007 1006 1001 991 991 981 973 970 970 970 971 972 978 993 1002
695 692 690 690 692 692 692 694 697 699 699 698 698 698 698 698 698 695 693 698 698 700 699 699 700 701 701 701 702 703 703 703 706 708 709 711 711 715 717 718 718 718 720 721 722 724 724 725 725 725 727 727 727 727 728 730 733 733 736 737 736 734 734 733 736 738 739 739 737 737 739 741 741 742 743 743 745 746 746 747 747 747 748 748 748 748 749 750 750 751 751 751 751 751 753 754 753 753 754 754 754 756 756 756 756 757 758 756 753 753 751 750 749 747 747 748 749 749 750 750 751 752 752 752 757 757 762 769 773 774 774 771 769 769 767 767 767 769 769 768 768 769 771 773 772 772 772 772 772 772 772 772 772 773 774 777 777 779 780 781 782 782 784 787 789 789 789 791 793 794 794 796 796 797 800 802 802 802 802 803 806 808 808 810 810 812 813 813 813 814 815 819 819 819 818 817 818 819 819 820 821 819 817 817 818 821 823 823 823 824 824 826 828 828 829 829 830 831 832 832 833 835 836 836 836 836 837 840 842 842 844 845 844 841 841 834 827 820 817 810 810 808 817 834 842 842 849 853 856 858 858 859 860 860 861 861 862 861 859 857 857 854 851 849 848 848 848 848 852 855 858 858 860 864 864 864 864 866 868 869 868 868 868 869 871 874 874 877 877 878 876 870 870 862 853 856 870 870 878 881 883 884 884 883 884 883 881 881 880 882 882 880 878 878 879 882 885 887 887 888 893 895 890 890 884 880 875 873 873 874 874 875 880 880 885 887 889 890 891 891 893 896 898 900 900 901 902 904 904 904 904 905 906 907 907 906 906 906 909 911 911 912 911 909 911 911 912 914 918 919 919 921 922 919 916 916 915 916 917 919 919 922 925 925 924 926 926 925 924 923 921 921 917 910 904 903 903 901 897 896 896 896 896 902 906 909 909 909 907 906 904 901 901 891 885 882 879 879 878 880 889 884 884 877 873 876 888 888 898 905 908 909 907 907 903 900 899 899 899 900 904 909 915 915 921 921 920 916 916 908 901 893 887 887 882 877 871 871 877 877 888 894 895 894 894 891 888 887 884 884 877 867 859 855 855 864 878 886 888 891 891 893 894 894 896 896 896 894 893 893 893 890 892 898 902 902 901 898 895 891 891 888 888 887 884 878 878 867 857 851 854 854 859 859 858 854 854 850 846 844 848 848 855 873 881 892 905 905 917 923 926 927 927 927 929 933 934 934 934 929 921 920 920 924 928 931 934 934 938 943 952 955 959 959 964 970 977 983 983 986 987 984 978 978 975 976 974 969 969 962 953 945 935 932 932 933 935 932 924 924 915 907 900 897 897 896 903 909 919 919 931 939 945 953 953 958 957 952 945 937 937 927 917 910 906 906 903 904 904 907 907 915 924 930 936 936 941 946 949 957 965 965 972 977 982 983 983 989 994 998 1001 1001 1004 1004 1000 993 993 981 968 966 967 967 972 979 985 997 1008
695 692 690 690 692 692 692 694 697 699 699 698 698 698 698 698 698 695 693 698 698 700 699 699 700 701 701 701 702 703 703 703 706 708 709 711 711 715 717 718 718 718 720 721 722 724 724 725 725 725 727 727 727 727 728 730 733 733 736 737 736 734 734 733 736 738 739 739 737 737 739 741 741 742 743 743 745 746 746 747 747 747 748 748 748 748 749 750 750 751 751 751 751 751 753 754 753 753 754 754 754 756 756 756 756 757 758 756 753 753 751 750 749 747 747 748 749 749 750 750 751 752 752 752 757 757 762 769 773 774 774 771 769 769 767 767 767 769 769 768 768 769 771 773 772 772 772 772 772 772 772 772 772 773 774 777 777 779 780 781 782 782 784 787 789 789 789 791 793 794 794 796 796 797 800 802 802 802 802 803 806 808 808 810 810 812 813 813 813 814 815 819 819 819 818 817 818 819 819 820 821 819 817 817 818 821 823 823 823 824 824 826 828 828 829 829 830 831 832 832 833 835 836 836 836 836 837 840 842 842 844 845 844 841 841 834 827 820 817 810 810 808 817 834 842 842 849 853 856 858 858 859 860 860 861 861 862 861 859 857 857 854 851 849 848 848 848 848 852 855 858 858 860 864 864 864 864 866 868 869 868 868 868 869 871 874 874 877 877 878 876 870 870 862 853 856 870 870 878 881 883 884 884 883 884 883 881 881 880 882 882 880 878 878 879 882 885 887 887 888 893 895 890 890 884 880 875 873 873 874 874 875 880 880 885 887 889 890 891 891 893 896 898 900 900 901 902 904 904 904 904 905 906 907 907 906 906 906 909 911 911 912 911 909 911 911 912 914 918 919 919 921 922 919 916 916 915 916 917 919 919 922 925 925 924 926 926 925 924 923 921 921 917 910 904 903 903 901 897 896 896 896 896 902 906 909 909 909 907 906 904 901 901 891 885 882 879 879 878 880 889 884 884 877 873 876 888 888 898 905 908 909 907 907 903 900 899 899 899 900 904 909 915 915 921 921 920 916 916 908 901 893 887 887 882 877 871 871 877 877 888 894 895 894 894 891 888 887 884 884 877 867 859 855 855 864 878 886 888 891 891 893 894 894 896 896 896 894 893 893 893 890 892 898 902 902 901 898 895 891 891 888 888 887 884 878 878 867 857 851 854 854 859 859 858 854 854 850 846 844 848 848 855 873 881 892 905 905 917 923 926 927 927 927 929 933 934 934 934 929 921 920 920 924 928 931 934 934 938 943 952 955 959 959 964 970 977 983 983 986 987 984 978 978 975 976 974 969 969 962 953 945 935 932 932 933 935 932 924 924 915 907 900 897 897 896 903 909 919 919 931 939 945 953 953 958 957 952 945 937 937 927 917 910 906 906 903 904 904 907 907 915 924 930 936 936 941 946 949 957 965 965 972 977 982 983 983 989 994 998 1001 1001 1004 1004 1000 993 993 981 968 966 967 967 972 979 985 997 1008
698 695 691 691 691 691 692 693 694 694 694 693 694 694 692 692 691 689 689 690 690 693 694 695 695 696 696 698 702 702 702 702 705 709 709 711 711 715 717 718 718 718 718 720 722 725 725 726 726 727 728 728 728 728 730 731 734 734 736 735 735 734 734 734 737 740 740 740 739 738 740 741 741 743 744 744 744 746 746 748 748 749 749 749 749 748 749 751 751 752 752 751 751 751 752 753 752 752 753 753 754 756 755 754 754 754 753 752 750 750 747 747 747 748 748 747 747 749 750 750 753 756 759 759 762 762 767 771 774 775 775 772 769 768 767 767 767 767 767 766 766 766 769 770 770 768 768 767 767 768 770 770 772 773 774 777 777 778 779 781 782 782 783 786 788 789 789 790 791 791 792 794 794 795 799 802 802 802 802 803 804 806 806 808 809 810 811 811 810 812 814 814 816 816 816 816 816 817 817 819 819 818 817 817 817 820 823 823 823 823 825 827 828 828 829 829 828 829 833 833 833 834 835 835 835 834 835 838 840 840 843 844 843 839 839 830 819 812 808 805 805 811 824 836 845 845 850 852 854 856 856 858 859 859 859 859 859 857 856 852 852 848 847 846 848 850 850 852 853 856 859 859 861 863 864 865 865 867 867 867 866 866 867 868 870 873 873 874 875 876 872 865 865 856 847 853 869 869 879 881 882 883 883 883 883 882 879 879 879 880 879 879 876 876 877 881 885 886 886 887 890 890 883 883 881 874 868 868 868 873 876 878 881 881 884 886 888 890 891 891 892 894 896 899 899 901 903 904 902 902 902 903 904 905 905 906 906 907 908 910 910 910 909 909 911 911 912 915 917 917 917 918 918 918 915 915 914 915 916 917 917 920 924 924 921 921 921 921 922 922 920 920 918 914 908 906 906 901 897 895 893 893 893 898 905 908 910 910 907 906 903 900 900 894 890 888 880 880 875 875 874 874 874 871 871 876 888 888 899 904 906 906 904 904 900 897 897 896 896 899 904 909 918 918 924 923 920 915 915 907 897 887 879 879 876 870 866 867 873 873 882 889 890 888 888 884 881 881 880 880 875 867 858 855 855 864 876 882 887 892 892 894 893 892 890 890 890 888 888 890 890 891 895 899 899 899 897 892 888 885 885 885 886 885 883 878 878 867 857 850 850 850 852 853 850 848 848 845 844 847 855 855 861 867 876 890 903 903 913 920 923 923 923 922 924 928 931 931 928 922 919 923 923 928 933 938 944 944 948 953 955 957 961 961 965 970 977 981 981 981 982 978 971 971 967 966 965 961 961 953 946 938 931 928 928 928 930 926 918 918 910 901 895 892 892 895 903 910 917 917 928 937 945 951 951 952 949 944 938 929 929 918 908 900 897 897 896 899 903 908 908 919 930 937 942 942 948 952 954 957 961 961 968 976 981 981 981 984 989 992 997 997 1003 1003 999 992 992 981 969 963 964 964 971 982 992 998 1009
697 695 693 691 692 692 694 693 692 689 689 688 690 689 689 689 690 691 691 689 689 689 691 692 692 693 693 696 702 702 701 701 702 706 707 711 711 715 717 718 719 719 720 720 722 724 724 725 725 727 728 728 728 728 730 733 735 735 735 734 734 735 735 736 739 740 741 741 740 741 741 742 742 744 745 744 744 745 745 746 749 749 749 749 748 748 749 751 751 752 752 751 751 751 752 752 751 752 752 752 754 755 754 753 753 752 748 748 747 747 745 746 749 750 750 748 750 753 755 755 757 761 761 759 762 762 766 769 770 771 771 769 767 767 766 766 765 765 763 763 763 765 768 768 767 765 765 763 762 765 769 769 772 773 774 778 778 779 781 782 783 783 784 786 788 789 789 789 789 789 790 792 792 796 800 803 803 803 802 803 804 806 806 807 807 808 809 809 809 810 812 812 812 812 814 815 815 816 816 817 817 816 816 816 817 819 822 822 822 823 825 827 828 828 830 829 827 829 833 833 833 833 834 834 834 833 834 835 837 837 840 841 842 839 839 829 817 808 806 810 810 820 832 840 847 847 848 849 850 852 852 855 855 856 857 857 857 856 853 848 848 844 842 844 850 854 854 855 856 857 859 859 860 862 864 866 866 866 865 864 864 864 865 868 870 871 871 872 873 874 867 859 859 851 845 852 868 868 877 879 878 878 878 880 879 878 875 875 874 875 874 874 875 875 877 880 884 885 885 885 887 884 880 880 876 869 866 868 868 874 879 880 881 881 882 885 888 889 889 889 891 893 895 897 897 900 902 902 901 901 901 902 904 905 905 906 906 906 906 907 907 908 909 909 910 910 912 915 915 914 914 914 915 915 915 915 914 914 914 913 913 915 921 921 919 919 919 919 919 919 919 919 917 915 912 909 909 903 897 895 893 893 892 896 901 906 906 906 905 904 902 901 901 899 896 893 886 886 874 873 870 866 866 868 873 882 890 890 899 902 902 902 899 899 896 893 893 893 893 898 904 911 919 919 923 923 920 916 916 909 899 886 875 875 869 862 860 861 867 867 874 880 881 882 882 881 879 878 878 878 872 864 856 857 857 865 873 880 887 893 893 894 891 887 885 885 883 883 883 890 890 896 899 898 895 895 891 885 879 878 878 881 882 883 882 875 875 866 858 853 849 849 849 849 846 844 844 844 845 849 855 855 859 862 874 890 900 900 908 914 917 916 916 912 917 924 925 925 921 919 921 928 928 933 938 946 950 950 956 956 956 956 957 957 961 965 971 973 973 973 972 969 960 960 956 953 954 949 949 943 939 932 926 922 922 925 927 923 914 914 902 893 890 891 891 895 901 907 914 914 924 932 939 944 944 943 938 934 928 921 921 910 900 894 893 893 895 901 908 914 914 923 932 938 947 947 955 959 961 960 962 962 967 971 975 975 975 977 983 986 992 992 999 1001 998 991 991 982 970 963 963 963 970 981 989 996 1005
695 695 695 694 696 696 696 695 693 688 688 687 687 688 689 689 693 698 697 693 693 692 692 693 692 693 693 696 701 704 701 701 699 701 703 708 708 713 716 717 721 721 721 720 721 723 723 724 724 725 726 727 727 729 730 733 735 735 735 734 734 735 735 737 739 741 740 740 740 740 740 741 741 744 745 744 744 743 743 745 747 747 746 746 748 749 750 750 750 751 752 752 752 752 752 752 751 751 752 752 755 756 752 751 751 749 744 744 745 745 744 747 751 753 753 753 755 758 759 759 760 761 762 761 763 763 765 766 766 767 767 766 765 766 764 764 763 762 762 763 763 766 767 767 767 768 768 766 765 769 772 772 774 774 775 778 778 780 782 783 784 784 785 787 788 788 788 789 789 789 790 794 794 795 798 801 802 802 803 804 805 806 806 806 806 806 807 807 808 809 810 811 810 810 810 812 814 815 815 816 816 815 815 815 816 818 820 820 820 821 823 824 825 825 827 826 827 829 831 831 832 831 831 831 831 833 835 835 835 835 836 837 838 835 835 828 813 805 805 814 814 826 837 843 845 845 846 847 846 847 847 851 853 854 854 854 854 853 850 844 844 841 843 846 851 855 855 855 856 857 859 859 859 860 862 865 865 865 864 863 863 863 865 866 869 870 870 870 871 872 862 853 853 847 849 858 868 868 875 878 876 876 876 877 875 874 873 873 871 870 869 870 874 874 877 879 881 882 882 883 883 880 876 876 872 867 867 871 871 876 879 880 882 882 883 885 887 889 889 889 891 892 892 894 894 896 898 899 899 899 899 900 902 903 903 904 904 903 905 906 906 908 909 909 909 909 911 913 913 912 912 912 913 913 913 913 913 912 911 908 908 910 915 916 916 917 917 918 918 917 916 916 916 915 914 912 912 904 900 895 892 892 890 892 898 903 903 903 901 900 900 899 899 899 899 897 888 888 876 873 866 862 862 867 876 884 890 890 895 898 899 897 895 895 893 890 889 892 892 898 905 912 918 918 920 921 918 915 915 909 899 884 873 873 866 858 855 858 863 863 868 872 874 876 876 876 877 876 873 873 868 860 854 857 857 866 876 883 889 891 891 891 886 880 880 880 880 880 885 891 891 897 898 896 892 892 887 879 874 874 874 876 877 878 878 873 873 864 858 853 848 848 847 846 843 842 842 844 846 851 855 855 860 866 876 890 899 899 906 909 910 910 910 910 915 919 920 920 916 916 923 929 929 937 944 950 952 952 959 957 956 952 951 951 955 958 960 958 958 959 961 956 950 950 944 940 938 937 937 936 931 921 916 917 917 921 923 919 912 912 896 887 887 890 890 893 896 901 911 911 920 928 936 940 940 935 930 923 916 911 911 903 894 895 899 899 903 910 918 923 923 933 940 950 956 956 960 964 965 965 967 967 968 969 969 970 970 973 978 983 989 989 996 998 996 990 990 983 974 964 961 961 966 977 984 990 994
696 695 697 697 699 699 699 697 695 693 693 691 690 690 691 691 695 698 699 697 697 695 695 696 697 697 697 697 701 706 703 703 699 699 700 705 705 711 713 716 720 720 720 720 721 722 722 723 724 725 726 729 729 730 731 732 734 734 734 734 734 733 733 736 739 740 739 739 739 739 739 740 740 743 743 743 742 741 741 743 745 745 745 745 747 749 748 748 748 749 751 751 751 751 752 752 753 752 753 753 756 755 751 747 747 744 741 742 746 746 750 752 753 755 755 755 757 760 761 761 760 760 762 762 762 762 764 763 762 762 762 761 761 763 761 761 760 761 764 765 765 766 767 768 771 773 773 772 773 773 776 776 776 776 777 779 779 780 781 783 785 785 786 787 787 787 787 789 789 790 792 794 794 794 796 801 802 802 804 804 804 804 804 805 805 805 806 806 807 808 809 809 809 809 810 811 813 814 814 814 815 815 814 814 815 816 819 820 820 820 821 821 821 821 822 824 827 829 829 829 830 830 829 829 829 833 834 834 834 834 834 833 834 830 830 821 809 805 807 818 818 831 841 843 844 844 846 847 847 848 848 851 851 849 849 849 851 849 845 841 841 841 845 847 852 854 854 854 856 858 859 859 859 860 860 862 862 863 863 862 862 862 863 866 868 869 869 868 869 865 856 847 847 848 854 862 870 870 876 877 875 876 876 875 874 873 870 870 868 867 867 868 873 873 877 879 881 882 882 882 880 878 875 875 869 866 870 875 875 878 879 880 882 882 884 885 887 889 889 889 891 892 891 892 892 893 895 897 898 898 897 898 900 901 901 902 902 902 902 903 903 905 907 906 907 907 909 911 911 911 911 910 909 909 909 909 910 911 909 906 906 908 912 912 912 915 915 917 916 915 914 914 913 914 912 910 910 908 903 896 889 889 886 889 894 899 899 899 899 897 897 897 897 897 900 897 888 888 878 873 864 860 860 866 874 882 887 887 893 895 895 893 892 892 890 888 887 891 891 897 905 912 916 916 917 917 916 910 910 907 900 888 877 877 867 858 852 855 857 857 862 866 868 871 871 872 872 873 869 869 864 857 852 858 858 869 880 886 887 889 889 887 880 876 876 876 877 880 885 890 890 892 892 890 886 886 879 874 871 871 871 873 872 873 870 865 865 860 856 851 844 844 844 843 841 843 843 846 849 853 860 860 868 873 882 890 898 898 903 905 906 907 907 910 913 914 913 913 913 917 926 934 934 940 947 950 957 957 958 954 951 945 941 941 946 947 946 948 948 951 952 948 936 936 934 928 929 927 927 925 918 906 904 909 909 916 920 917 907 907 895 885 883 887 887 889 894 902 911 911 922 930 935 935 935 930 924 914 906 902 902 895 892 896 906 906 912 921 926 932 932 941 949 956 959 959 960 964 965 965 966 966 966 964 965 967 967 972 976 980 985 985 989 991 993 991 991 984 975 965 961 961 966 973 980 986 987
696 695 697 697 699 699 699 697 695 693 693 691 690 690 691 691 695 698 699 697 697 695 695 696 697 697 697 697 701 706 703 703 699 699 700 705 705 711 713 716 720 720 720 720 721 722 722 723 724 725 726 729 729 730 731 732 734 734 734 734 734 733 733 736 739 740 739 739 739 739 739 740 740 743 743 743 742 741 741 743 745 745 745 745 747 749 748 748 748 749 751 751 751 751 752 752 753 752 753 753 756 755 751 747 747 744 741 742 746 746 750 752 753 755 755 755 757 760 761 761 760 760 762 762 762 762 764 763 762 762 762 761 761 763 761 761 760 761 764 765 765 766 767 768 771 773 773 772 773 773 776 776 776 776 777 779 779 780 781 783 785 785 786 787 787 787 787 789 789 790 792 794 794 794 796 801 802 802 804 804 804 804 804 805 805 805 806 806 807 808 809 809 809 809 810 811 813 814 814 814 815 815 814 814 815 816 819 820 820 820 821 821 821 821 822 824 827 829 829 829 830 830 829 829 829 833 834 834 834 834 834 833 834 830 830 821 809 805 807 818 818 831 841 843 844 844 846 847 847 848 848 851 851 849 849 849 851 849 845 841 841 841 845 847 852 854 854 854 856 858 859 859 859 860 860 862 862 863 863 862 862 862 863 866 868 869 869 868 869 865 856 847 847 848 854 862 870 870 876 877 875 876 876 875 874 873 870 870 868 867 867 868 873 873 877 879 881 882 882 882 880 878 875 875 869 866 870 875 875 878 879 880 882 882 884 885 887 889 889 889 891 892 891 892 892 893 895 897 898 898 897 898 900 901 901 902 902 902 902 903 903 905 907 906 907 907 909 911 911 911 911 910 909 909 909 909 910 911 909 906 906 908 912 912 912 915 915 917 916 915 914 914 913 914 912 910 910 908 903 896 889 889 886 889 894 899 899 899 899 897 897 897 897 897 900 897 888 888 878 873 864 860 860 866 874 882 887 887 893 895 895 893 892 892 890 888 887 891 891 897 905 912 916 916 917 917 916 910 910 907 900 888 877 877 867 858 852 855 857 857 862 866 868 871 871 872 872 873 869 869 864 857 852 858 858 869 880 886 887 889 889 887 880 876 876 876 877 880 885 890 890 892 892 890 886 886 879 874 871 871 871 873 872 873 870 865 865 860 856 851 844 844 844 843 841 843 843 846 849 853 860 860 868 873 882 890 898 898 903 905 906 907 907 910 913 914 913 913 913 917 926 934 934 940 947 950 957 957 958 954 951 945 941 941 946 947 946 948 948 951 952 948 936 936 934 928 929 927 927 925 918 906 904 909 909 916 920 917 907 907 895 885 883 887 887 889 894 902 911 911 922 930 935 935 935 930 924 914 906 902 902 895 892 896 906 906 912 921 926 932 932 941 949 956 959 959 960 964 965 965 966 966 966 964 965 967 967 972 976 980 985 985 989 991 993 991 991 984 975 965 961 961 966 973 980 986 987
696 696 697 698 699 699 700 698 697 695 695 695 695 697 697 697 696 700 702 701 701 700 700 702 704 704 704 705 708 708 705 705 701 701 703 704 704 709 711 713 714 714 717 720 721 722 722 723 725 726 727 728 728 731 731 732 732 732 733 734 733 733 733 735 737 738 739 739 739 738 739 742 742 743 744 743 742 741 741 743 745 744 744 744 746 746 746 746 746 748 749 748 749 749 750 752 753 752 752 752 750 749 745 742 742 740 741 746 752 752 756 757 756 756 756 756 758 760 760 760 760 761 762 762 760 760 760 760 758 757 757 754 755 756 758 758 760 763 766 767 767 769 770 771 772 773 773 776 776 775 776 776 777 777 778 780 780 780 781 783 785 785 786 786 786 787 787 787 789 791 793 793 793 794 796 800 802 802 803 803 802 803 803 804 805 805 806 806 806 807 807 807 809 809 810 810 810 812 812 812 813 813 812 812 813 815 818 820 820 820 819 819 819 819 821 824 825 827 828 828 829 829 828 829 829 831 833 833 833 833 833 833 828 822 822 815 805 803 806 819 819 831 842 843 843 843 845 847 848 848 848 848 847 846 849 849 849 845 841 839 839 841 845 849 852 853 853 854 856 857 856 856 858 858 858 859 859 860 861 862 863 863 863 864 866 867 867 869 866 861 851 845 845 848 854 863 870 870 874 875 874 874 874 874 873 873 871 871 867 866 867 869 873 873 876 880 881 881 881 881 878 876 872 872 867 867 872 876 876 877 879 880 882 882 884 885 887 888 888 888 888 890 890 891 891 891 892 894 896 896 897 897 898 899 899 901 901 901 901 901 901 903 904 903 904 904 907 908 909 910 910 908 908 907 907 907 909 909 908 908 908 909 910 910 910 912 912 913 913 912 912 912 913 913 912 911 911 910 906 899 891 891 885 886 888 891 894 894 895 894 893 894 894 898 901 899 889 889 878 872 864 861 861 866 873 878 884 884 890 894 893 890 889 889 887 885 885 888 888 894 902 910 913 913 912 909 906 904 904 904 900 889 880 880 870 861 854 853 852 852 856 863 864 865 865 868 870 869 865 865 857 852 852 861 861 873 881 886 886 885 885 881 876 871 871 871 876 880 884 887 887 887 887 883 877 877 872 870 868 868 868 868 868 866 862 857 857 854 851 845 841 841 841 841 842 846 846 853 860 864 869 869 875 880 887 893 896 896 900 903 904 906 906 911 913 912 912 912 915 923 931 938 938 940 943 953 956 956 955 948 942 936 933 933 935 935 937 940 940 945 944 937 933 933 927 921 916 909 909 907 903 898 898 903 903 911 918 915 906 906 894 883 878 879 879 887 897 906 915 915 922 928 930 926 926 920 915 906 900 892 892 888 890 899 909 909 918 927 932 939 939 945 952 957 958 958 959 962 963 962 961 961 959 959 963 969 969 973 977 978 979 979 983 985 989 988 988 983 974 967 961 961 964 969 975 979 980
695 696 697 698 699 699 700 700 699 698 698 697 699 701 699 699 699 703 705 706 706 704 707 708 709 711 711 715 715 712 708 708 705 705 705 705 705 706 708 710 713 713 716 718 720 721 721 724 725 726 726 728 728 730 732 731 731 731 732 733 732 732 732 734 734 735 737 737 738 738 739 742 742 743 744 744 743 743 743 746 746 743 743 743 745 745 745 747 747 749 748 747 747 747 748 751 751 749 747 747 745 743 739 737 737 738 743 749 755 755 759 758 758 758 758 758 758 759 758 758 759 761 762 760 757 757 756 756 756 754 754 753 753 754 759 759 763 765 766 769 769 772 773 773 773 774 774 777 777 778 778 778 777 776 778 779 779 780 780 783 784 784 785 785 785 786 786 786 788 791 792 793 793 793 796 798 799 799 801 802 803 803 803 803 804 805 805 805 806 806 806 808 810 810 811 811 811 811 811 810 812 813 812 812 813 815 817 818 818 817 817 817 816 816 820 823 823 824 826 826 828 827 826 827 827 829 830 831 831 831 830 829 825 819 819 810 803 801 808 818 818 829 841 841 842 842 843 847 848 847 847 846 846 846 848 848 848 845 842 838 838 839 844 848 852 852 852 853 855 855 856 856 857 857 857 857 857 858 859 862 864 864 863 862 864 865 865 867 867 862 852 846 846 853 859 867 872 872 873 873 873 871 871 871 874 874 870 870 864 864 867 868 870 870 873 877 878 875 875 873 869 868 867 867 866 869 874 877 877 878 879 878 880 880 882 884 886 887 886 886 886 887 888 890 890 891 890 892 895 895 895 895 896 897 897 899 900 899 897 899 899 901 902 903 904 904 905 906 907 908 908 907 907 906 906 906 907 908 908 908 908 908 908 908 909 908 908 909 911 911 911 911 912 911 912 911 911 910 907 903 893 893 884 884 884 887 890 890 892 892 892 893 893 898 901 899 890 890 880 870 862 861 861 865 871 877 883 883 888 892 892 889 887 887 884 882 882 886 886 891 898 904 906 906 904 900 897 897 897 898 894 888 879 879 872 861 854 850 846 846 851 859 862 863 863 864 865 866 861 861 853 851 856 866 866 874 880 885 884 881 881 875 869 865 868 868 873 879 885 885 885 882 880 876 869 869 866 866 866 864 864 861 858 856 853 851 851 849 844 841 839 839 839 844 849 859 859 869 876 878 879 879 880 884 889 893 895 895 899 904 908 912 912 917 919 918 920 920 924 929 934 938 938 938 944 948 950 950 947 941 935 929 926 926 929 929 931 934 934 937 937 931 926 926 918 910 898 893 893 894 892 890 895 900 900 906 912 908 902 902 892 881 876 877 877 889 899 908 914 914 915 918 917 914 914 911 905 900 895 886 886 886 893 903 912 912 921 928 936 942 942 947 951 957 960 960 959 959 960 957 955 955 953 954 962 970 970 975 975 973 972 972 977 981 984 984 984 979 973 966 960 960 959 963 969 971 974
696 696 697 697 699 699 699 699 699 698 698 700 700 701 700 700 700 702 705 706 706 707 710 711 713 715 715 715 715 712 710 710 708 707 706 705 705 704 705 709 712 712 715 717 718 719 719 722 723 725 726 727 727 730 731 731 730 730 731 732 733 733 733 733 733 733 736 736 737 737 737 739 739 741 742 743 745 746 746 749 747 743 745 745 746 746 746 749 749 751 750 748 745 745 746 748 747 744 742 742 741 738 737 738 738 742 748 753 756 756 757 757 758 760 760 760 759 758 756 756 756 757 757 756 754 754 754 756 757 757 757 756 755 757 764 764 767 766 766 769 769 773 774 773 774 775 775 775 776 778 779 779 778 777 778 779 779 779 779 783 784 784 784 784 785 785 785 785 786 789 791 792 792 791 793 795 797 797 799 801 801 802 802 801 802 803 804 804 805 805 806 808 809 809 809 809 810 810 810 810 812 814 813 813 813 814 815 814 814 814 814 815 816 816 819 821 822 822 825 825 826 825 824 826 826 827 828 828 827 827 827 826 822 818 818 808 801 801 808 818 818 828 837 839 841 841 843 846 848 846 846 845 846 847 847 847 847 846 842 836 836 836 840 844 848 851 851 852 853 854 855 855 857 857 856 857 857 858 859 861 863 863 863 863 863 863 863 863 861 856 845 843 843 857 865 867 870 870 872 872 871 868 868 869 873 873 869 869 863 863 864 866 867 867 869 870 871 869 869 865 859 860 863 863 865 869 875 878 878 880 879 878 878 878 881 883 885 887 886 886 887 886 887 889 889 889 890 891 893 893 894 894 894 895 895 897 897 897 896 897 897 899 901 902 903 903 903 904 906 906 906 906 906 905 905 905 906 907 907 906 906 906 906 906 906 906 906 908 910 909 908 908 910 910 910 909 909 907 905 902 895 895 886 883 882 883 885 885 886 889 891 893 893 896 898 896 891 891 882 870 863 860 860 864 870 877 886 886 890 891 891 889 887 887 884 881 881 885 885 890 896 900 900 900 897 894 890 887 887 885 884 881 874 874 865 857 851 845 842 842 845 852 857 857 857 856 857 858 854 854 850 853 860 871 871 877 882 885 882 876 876 869 861 861 866 866 873 879 883 882 882 877 874 868 862 862 859 859 859 859 859 853 848 848 847 846 846 843 840 838 838 838 840 846 856 868 868 881 884 886 884 884 885 888 892 894 898 898 904 912 917 921 921 924 925 927 928 928 930 930 932 933 933 932 936 939 942 942 940 935 930 923 919 919 920 923 927 929 929 930 929 924 918 918 910 896 885 883 883 885 882 882 889 894 894 898 900 898 892 892 882 875 873 878 878 889 896 900 903 903 903 903 903 903 903 900 894 890 887 882 882 885 897 910 921 921 927 933 939 943 943 945 947 954 958 958 958 955 953 949 948 948 947 951 959 968 968 971 968 963 963 963 968 976 979 979 979 976 971 963 954 954 952 956 961 965 971
696 697 698 698 698 698 698 698 698 697 697 699 701 702 702 702 702 702 704 705 705 708 710 711 712 715 715 716 714 713 712 712 710 709 710 709 709 705 705 707 710 710 714 716 718 718 718 719 720 722 724 726 726 728 728 728 728 728 729 731 732 733 733 732 733 734 735 735 735 735 736 737 737 737 735 739 744 748 748 750 748 746 747 747 749 747 747 748 748 751 750 747 744 744 744 745 742 738 736 736 737 738 739 743 743 748 753 754 754 754 755 757 758 759 759 759 758 756 756 756 755 754 753 752 750 750 752 758 763 763 763 759 757 760 765 765 768 769 768 771 771 774 772 772 774 775 775 775 775 776 777 777 777 777 777 778 778 779 781 784 785 785 784 784 785 784 784 783 783 786 788 790 790 791 792 794 795 795 796 797 800 800 800 800 800 802 803 803 804 805 806 807 807 807 806 807 808 807 807 808 809 812 813 813 810 810 812 814 814 815 815 816 817 817 818 820 821 822 823 823 824 824 823 825 825 826 826 825 822 822 821 818 813 806 806 801 798 801 810 816 816 822 833 839 841 841 843 845 845 843 843 843 845 846 846 846 845 844 839 834 834 834 837 841 845 848 848 848 850 852 855 855 856 857 857 858 858 859 858 858 860 860 862 862 863 862 862 859 853 847 837 841 841 857 862 864 867 867 869 869 868 867 867 869 873 873 869 869 862 860 861 863 866 866 866 865 867 869 869 863 856 858 862 862 865 869 875 879 879 881 880 878 879 879 883 885 886 887 888 888 888 887 887 887 887 888 888 890 892 892 892 892 893 894 894 894 895 897 897 898 898 899 899 900 903 903 903 904 905 904 904 904 904 904 904 904 905 906 906 905 905 905 904 904 903 902 902 904 906 905 905 905 908 908 907 907 907 906 903 901 897 897 890 885 882 879 876 876 880 885 890 893 893 896 897 895 891 891 881 871 863 858 858 862 871 880 885 885 888 890 892 890 887 887 884 881 880 885 885 890 894 895 892 892 888 886 884 878 878 874 873 868 861 861 856 851 845 840 837 837 840 846 847 846 846 846 846 847 846 846 850 857 866 876 876 880 883 882 877 868 868 861 858 861 869 869 874 876 877 876 876 871 865 859 854 854 851 848 848 849 849 846 844 843 843 843 843 840 837 836 836 836 840 848 858 871 871 881 885 886 886 886 888 893 896 899 902 902 909 916 921 927 927 930 931 932 930 930 928 927 927 926 926 923 925 929 934 934 933 927 920 916 911 911 909 913 918 920 920 921 920 918 911 911 902 889 881 876 876 874 871 875 883 888 888 888 888 886 881 881 875 868 869 876 876 886 888 889 890 890 891 890 891 892 892 890 884 881 879 882 882 891 904 917 927 927 932 935 936 940 940 943 946 950 954 954 953 948 944 943 944 944 946 951 959 965 965 966 962 958 959 959 963 967 972 973 973 972 968 961 954 954 948 950 956 964 973
696 697 698 698 698 698 698 698 699 699 699 701 701 701 701 701 702 702 703 705 705 709 710 710 711 714 714 716 715 714 714 714 714 712 713 713 713 712 707 706 710 710 712 714 716 716 716 717 720 722 723 725 725 727 726 726 726 726 728 730 731 732 732 732 733 735 735 735 733 732 732 732 732 729 728 733 739 743 743 745 747 748 751 751 750 748 746 748 748 750 749 744 742 742 742 741 739 734 734 734 738 741 746 749 749 752 753 754 754 754 754 756 757 755 755 755 754 754 754 754 754 753 751 748 749 749 756 763 766 763 763 759 758 764 769 769 769 769 769 772 772 773 773 773 774 775 775 776 775 775 776 776 777 776 776 777 777 780 781 783 784 784 783 783 783 782 782 781 782 785 788 790 790 792 794 795 795 795 794 795 798 798 798 798 799 801 802 802 803 803 804 805 805 805 804 806 806 806 806 806 807 809 809 809 808 807 809 812 812 814 816 817 817 817 818 819 821 822 823 823 823 824 823 823 823 823 823 822 818 818 814 807 802 800 800 797 798 802 810 815 815 820 834 839 841 841 842 843 843 841 841 841 843 845 845 845 845 840 836 833 833 834 838 841 845 846 846 847 849 851 853 853 855 856 857 859 859 860 858 857 859 859 861 861 861 860 860 854 847 839 836 841 841 855 861 864 866 866 866 865 866 867 867 869 872 871 865 865 859 856 858 861 863 863 862 861 862 864 864 862 860 861 865 865 869 872 874 878 878 880 880 880 881 881 884 885 886 886 887 887 887 887 887 887 887 886 887 888 890 890 890 890 891 892 892 893 895 896 897 898 898 898 898 899 902 902 903 903 903 903 903 903 903 903 902 902 902 903 903 904 904 902 901 901 900 901 901 903 904 903 904 904 905 904 904 906 906 906 903 901 899 899 893 888 883 878 877 877 879 885 890 894 894 896 896 894 890 890 879 868 861 858 858 864 875 881 884 884 886 887 888 889 887 887 883 879 878 883 883 889 892 891 885 885 881 879 876 867 867 862 860 855 850 850 846 842 835 832 831 831 835 838 839 839 839 840 841 845 849 849 857 865 874 879 879 878 879 876 868 862 862 857 858 864 871 871 872 873 871 868 868 862 855 850 846 846 844 840 841 842 842 841 840 840 841 841 841 838 836 835 837 837 842 850 861 875 875 881 884 885 889 889 894 896 897 900 903 903 909 916 923 929 929 932 934 932 927 927 922 919 917 913 913 915 918 921 925 925 923 915 911 907 905 905 905 906 907 910 910 913 912 911 906 906 893 881 872 864 864 863 866 872 878 880 880 881 877 873 869 869 866 864 867 873 873 878 878 878 877 877 877 878 880 882 882 881 878 877 881 891 891 902 914 922 927 927 930 930 931 935 935 940 944 946 947 947 947 942 938 939 943 943 947 954 960 964 964 963 957 955 955 955 957 962 965 966 966 965 962 957 953 953 947 949 955 966 975
696 697 698 698 698 698 698 698 699 699 699 701 701 701 701 701 702 702 703 705 705 709 710 710 711 714 714 716 715 714 714 714 714 712 713 713 713 712 707 706 710 710 712 714 716 716 716 717 720 722 723 725 725 727 726 726 726 726 728 730 731 732 732 732 733 735 735 735 733 732 732 732 732 729 728 733 739 743 743 745 747 748 751 751 750 748 746 748 748 750 749 744 742 742 742 741 739 734 734 734 738 741 746 749 749 752 753 754 754 754 754 756 757 755 755 755 754 754 754 754 754 753 751 748 749 749 756 763 766 763 763 759 758 764 769 769 769 769 769 772 772 773 773 773 774 775 775 776 775 775 776 776 777 776 776 777 777 780 781 783 784 784 783 783 783 782 782 781 782 785 788 790 790 792 794 795 795 795 794 795 798 798 798 798 799 801 802 802 803 803 804 805 805 805 804 806 806 806 806 806 807 809 809 809 808 807 809 812 812 814 816 817 817 817 818 819 821 822 823 823 823 824 823 823 823 823 823 822 818 818 814 807 802 800 800 797 798 802 810 815 815 820 834 839 841 841 842 843 843 841 841 841 843 845 845 845 845 840 836 833 833 834 838 841 845 846 846 847 849 851 853 853 855 856 857 859 859 860 858 857 859 859 861 861 861 860 860 854 847 839 836 841 841 855 861 864 866 866 866 865 866 867 867 869 872 871 865 865 859 856 858 861 863 863 862 861 862 864 864 862 860 861 865 865 869 872 874 878 878 880 880 880 881 881 884 885 886 886 887 887 887 887 887 887 887 886 887 888 890 890 890 890 891 892 892 893 895 896 897 898 898 898 898 899 902 902 903 903 903 903 903 903 903 903 902 902 902 903 903 904 904 902 901 901 900 901 901 903 904 903 904 904 905 904 904 906 906 906 903 901 899 899 893 888 883 878 877 877 879 885 890 894 894 896 896 894 890 890 879 868 861 858 858 864 875 881 884 884 886 887 888 889 887 887 883 879 878 883 883 889 892 891 885 885 881 879 876 867 867 862 860 855 850 850 846 842 835 832 831 831 835 838 839 839 839 840 841 845 849 849 857 865 874 879 879 878 879 876 868 862 862 857 858 864 871 871 872 873 871 868 868 862 855 850 846 846 844 840 841 842 842 841 840 840 841 841 841 838 836 835 837 837 842 850 861 875 875 881 884 885 889 889 894 896 897 900 903 903 909 916 923 929 929 932 934 932 927 927 922 919 917 913 913 915 918 921 925 925 923 915 911 907 905 905 905 906 907 910 910 913 912 911 906 906 893 881 872 864 864 863 866 872 878 880 880 881 877 873 869 869 866 864 867 873 873 878 878 878 877 877 877 878 880 882 882 881 878 877 881 891 891 902 914 922 927 927 930 930 931 935 935 940 944 946 947 947 947 942 938 939 943 943 947 954 960 964 964 963 957 955 955 955 957 962 965 966 966 965 962 957 953 953 947 949 955 966 975
696 696 698 698 697 697 697 698 699 700 700 699 698 699 700 700 702 703 703 705 705 707 709 709 711 714 714 715 715 715 716 716 714 713 714 715 715 714 711 709 708 708 707 710 713 714 714 717 721 723 723 725 725 726 725 724 726 726 728 729 730 731 731 732 732 735 735 735 731 728 726 726 726 724 723 728 732 734 734 737 739 743 748 748 748 745 745 745 745 747 745 741 739 739 738 738 736 738 742 742 744 748 752 754 754 754 754 754 753 753 754 755 753 750 750 750 750 750 753 753 753 751 751 750 752 752 759 763 763 761 761 759 761 766 769 769 769 770 771 771 771 774 774 774 775 776 776 776 775 776 777 777 777 776 777 778 778 779 780 781 781 781 781 781 780 779 779 780 784 786 787 789 789 792 794 795 794 794 794 795 796 797 797 797 799 800 801 801 801 801 803 804 803 803 804 805 806 805 805 805 805 806 808 808 808 806 807 808 808 811 814 815 816 816 817 819 821 822 822 822 822 823 822 821 821 819 816 811 805 805 801 800 797 797 797 797 799 803 811 818 818 828 836 838 839 839 840 842 842 841 841 841 843 844 844 844 843 839 833 832 832 836 839 841 844 847 847 848 849 850 852 852 853 855 857 859 859 861 859 857 857 857 858 859 859 858 858 853 844 838 836 843 843 854 861 862 863 863 863 863 864 866 866 868 869 867 862 862 857 855 857 859 859 859 858 856 857 859 859 861 862 866 869 869 871 872 875 877 877 879 880 880 881 881 882 883 883 884 885 885 885 885 886 886 886 886 886 888 889 889 889 888 889 891 891 892 894 895 895 896 896 897 897 898 900 900 901 902 902 901 901 900 901 902 902 902 901 901 901 900 900 899 900 898 898 900 900 900 900 902 903 903 903 902 902 905 905 906 904 902 901 901 896 891 886 881 878 878 880 884 888 892 892 894 894 891 888 888 879 865 858 858 858 867 878 882 884 884 885 883 885 887 885 885 882 877 876 881 881 888 890 890 884 884 876 869 864 857 857 853 850 848 844 844 840 833 827 827 832 832 836 840 842 846 846 848 852 856 860 860 865 872 876 874 874 873 872 869 863 858 858 855 858 864 867 867 868 867 865 860 860 852 845 843 839 839 836 835 834 836 836 836 836 837 837 838 838 837 836 838 842 842 847 852 864 877 877 882 884 888 891 891 895 894 894 895 899 899 908 916 923 929 929 930 931 928 921 921 914 908 904 905 905 909 914 918 920 920 915 909 903 899 897 897 896 899 901 903 903 904 903 900 893 893 879 870 863 858 858 856 860 866 870 871 871 869 867 861 859 859 859 860 865 869 869 871 869 868 869 869 869 869 872 876 876 875 876 880 889 902 902 913 921 925 926 926 925 925 924 929 929 934 938 941 941 941 941 936 934 935 942 942 948 954 959 963 963 960 954 951 949 949 949 954 958 958 958 955 950 948 947 947 948 952 960 970 980
694 694 696 697 696 696 696 697 699 699 699 696 695 698 699 699 702 704 704 705 705 707 708 709 711 712 712 713 714 714 715 715 714 713 714 715 715 716 716 712 705 705 705 708 711 713 713 718 722 722 722 724 724 724 724 724 727 727 729 730 729 730 730 729 729 730 730 730 727 724 722 723 723 723 724 726 727 728 728 730 732 735 740 740 740 740 742 740 740 740 740 739 737 737 738 739 741 744 748 748 749 751 754 755 755 756 756 754 753 753 753 753 750 746 746 745 745 749 753 753 753 754 755 757 757 757 759 760 761 762 762 762 765 766 766 766 767 769 770 771 771 772 774 775 774 774 774 775 776 776 777 777 777 777 778 778 778 779 780 780 779 779 780 781 779 777 777 780 782 787 787 788 788 791 793 793 793 793 793 794 795 795 795 796 798 799 799 799 799 800 802 802 801 801 801 803 803 802 802 802 803 804 805 805 805 804 805 806 806 808 813 813 814 814 817 819 820 821 821 821 821 819 819 817 817 813 807 801 796 796 795 796 798 800 800 805 809 809 818 826 826 832 837 839 840 840 840 840 841 841 841 842 843 843 843 843 842 840 834 833 833 836 839 842 844 846 846 848 848 850 851 851 852 852 854 858 858 859 858 857 856 856 857 858 858 858 858 855 843 837 834 843 843 855 859 861 860 860 861 861 862 864 864 866 866 865 862 862 858 856 857 856 854 854 855 857 858 863 863 865 867 870 872 872 872 874 876 876 876 877 879 879 879 879 879 880 881 882 882 882 883 883 884 884 884 885 886 888 890 890 888 887 888 890 890 890 891 893 894 894 894 895 895 896 897 897 899 900 900 899 899 898 900 901 901 901 901 900 899 898 898 898 899 898 896 898 898 897 895 898 900 900 900 900 901 904 904 904 903 902 900 900 897 893 887 882 879 879 876 877 883 887 887 890 890 888 886 886 880 868 858 861 861 868 877 881 882 882 884 883 884 886 883 883 878 875 874 877 877 883 887 886 880 880 872 862 854 850 850 849 850 849 844 844 840 830 826 829 838 838 844 849 855 859 859 862 865 867 868 868 870 871 871 868 868 868 868 865 859 852 852 851 855 858 861 861 861 860 858 853 853 845 840 839 838 838 835 832 831 832 832 834 835 835 834 835 835 836 838 842 845 845 850 855 864 876 876 880 881 884 888 888 889 889 888 891 898 898 908 918 925 928 928 926 923 919 914 914 907 897 897 899 899 905 912 916 916 916 910 903 898 892 888 888 885 887 891 895 895 896 893 888 877 877 867 862 857 852 852 851 855 857 858 858 858 860 859 856 856 856 856 857 862 866 866 864 864 866 870 870 870 871 874 874 874 875 883 890 897 908 908 918 923 924 923 923 921 921 921 924 924 929 935 938 938 938 935 932 931 932 941 941 948 955 959 961 961 958 951 946 941 941 944 948 951 951 951 947 943 940 943 943 950 957 967 976 984
693 693 695 696 695 695 695 696 698 699 699 696 696 697 698 698 701 704 704 706 706 708 709 709 709 710 710 712 714 714 714 714 713 713 714 716 716 718 719 716 713 713 709 709 712 713 713 717 720 720 721 721 721 721 721 724 725 725 727 730 729 727 727 727 725 724 724 724 724 722 721 723 723 724 727 727 726 726 726 728 729 731 732 732 731 734 735 734 734 735 737 740 742 742 744 748 748 749 749 749 749 750 752 755 755 756 755 755 754 754 752 751 749 744 744 742 744 750 756 756 757 758 761 760 759 759 759 761 762 763 763 765 765 766 766 766 767 768 768 769 769 772 773 773 771 772 772 775 776 775 774 774 775 776 777 777 777 778 779 778 777 777 779 780 778 776 776 775 782 785 787 789 789 791 792 792 792 792 792 792 793 793 793 795 797 798 798 798 798 799 800 799 799 799 800 800 800 799 799 801 802 801 800 800 800 802 805 805 805 807 810 812 813 813 815 815 817 819 820 820 820 816 815 814 814 811 804 797 792 792 794 801 806 809 809 815 818 821 826 832 832 833 836 837 839 839 839 839 840 842 842 842 842 842 841 841 840 838 834 833 833 835 841 843 844 845 845 847 847 848 850 850 850 850 852 854 854 856 856 855 854 854 855 857 857 857 857 852 842 834 835 841 841 850 858 860 859 859 858 859 860 861 861 863 863 862 860 860 857 856 855 851 850 850 854 859 861 865 865 868 868 870 872 872 873 874 874 874 874 876 879 879 877 877 877 879 879 879 880 880 881 881 882 883 883 884 886 887 889 889 889 887 889 889 889 888 888 890 891 893 893 894 895 895 896 896 897 899 899 899 899 898 898 898 899 899 901 900 898 897 897 897 897 896 896 896 896 895 893 894 898 898 900 899 900 901 901 903 902 901 899 899 898 895 888 883 880 880 872 871 877 880 880 883 885 885 884 884 879 868 860 860 860 866 873 879 880 880 882 883 884 885 884 884 880 876 872 873 873 877 878 877 874 874 868 859 852 853 853 855 856 858 856 856 850 843 832 835 840 840 847 850 858 863 863 868 869 869 871 871 871 869 867 866 866 865 863 859 853 846 846 846 850 853 854 854 853 851 848 845 845 840 841 842 841 841 838 834 831 832 832 835 837 837 836 834 834 838 844 846 849 849 853 859 868 875 875 876 876 878 880 880 880 882 884 891 900 900 909 919 926 929 929 925 919 914 907 907 897 892 892 895 895 902 908 913 912 912 905 899 892 885 879 879 874 874 877 880 880 882 879 871 864 864 857 852 847 843 843 844 847 847 849 850 850 855 855 857 857 857 858 860 864 867 867 868 869 875 879 879 879 880 881 882 882 883 894 901 904 913 913 919 921 921 919 919 916 913 912 918 918 926 931 934 934 934 930 926 928 932 940 940 948 955 959 960 960 956 950 943 938 938 939 942 941 939 939 937 935 937 944 944 953 961 971 979 985
694 694 693 694 694 694 694 695 697 696 696 696 697 697 699 699 702 703 703 706 706 708 709 709 709 710 710 711 713 714 714 714 714 714 715 717 717 720 721 723 720 720 714 710 711 712 712 714 717 719 719 719 719 718 719 720 721 721 721 725 725 724 724 723 720 720 722 722 722 720 720 722 722 725 727 727 728 729 729 732 732 732 732 732 730 732 732 730 730 731 739 742 745 745 750 754 755 752 750 750 750 751 752 754 754 755 754 754 753 753 752 751 748 744 744 745 749 755 759 759 759 758 760 761 760 760 760 761 762 764 764 764 765 766 767 767 768 768 769 769 769 770 772 771 771 773 773 775 775 774 773 773 774 775 776 775 775 775 775 774 775 775 776 778 776 773 773 775 780 784 787 788 788 790 790 791 791 791 791 791 792 792 792 794 796 797 797 797 798 798 798 797 798 798 798 798 798 798 798 799 800 798 798 798 799 802 807 808 808 807 810 811 813 813 813 814 815 816 816 816 815 814 813 811 811 808 800 793 792 792 800 810 813 816 816 820 823 826 829 831 831 831 832 835 837 837 837 838 839 841 841 841 841 841 840 840 837 836 833 832 832 835 841 844 844 844 844 845 846 847 848 848 849 850 852 854 854 854 854 854 853 853 853 855 856 853 853 845 839 834 834 840 840 850 857 859 857 857 856 857 858 860 860 860 858 857 856 856 854 852 850 848 849 849 854 858 862 866 866 866 867 869 872 872 874 873 873 874 874 876 878 878 876 876 876 879 878 879 879 879 879 880 881 881 881 884 884 885 886 886 887 887 888 889 889 888 888 888 889 892 892 893 894 895 895 895 897 898 897 896 896 896 896 896 897 897 898 898 897 897 897 895 894 893 893 894 894 894 892 893 895 895 896 897 898 900 900 901 901 900 900 900 900 898 890 885 882 882 874 870 871 874 874 876 879 881 877 877 872 861 857 858 858 863 869 876 880 880 881 881 881 883 883 883 880 875 866 867 867 869 871 871 869 869 865 859 860 863 863 862 862 863 864 864 862 856 847 840 839 839 842 846 854 860 860 865 867 868 869 869 868 865 864 864 864 862 856 849 842 840 840 844 848 850 847 847 844 842 842 837 837 835 837 842 845 845 842 836 834 834 834 835 838 840 841 840 840 847 853 854 855 855 866 873 876 875 875 875 873 872 873 873 874 879 888 897 904 904 911 919 926 926 926 923 918 910 899 899 893 888 887 892 892 900 909 913 910 910 903 894 886 880 871 871 863 862 865 866 866 867 861 854 848 848 846 844 840 838 838 840 846 849 850 854 854 858 860 862 862 862 867 870 872 875 875 878 880 883 886 886 885 886 890 894 894 898 903 909 914 917 917 919 919 917 915 915 909 902 904 914 914 924 926 930 931 931 926 923 926 932 939 939 948 955 959 959 959 955 949 941 934 934 933 934 931 930 930 930 931 938 949 949 957 965 975 981 988
694 694 693 694 694 694 694 695 697 696 696 696 697 697 699 699 702 703 703 706 706 708 709 709 709 710 710 711 713 714 714 714 714 714 715 717 717 720 721 723 720 720 714 710 711 712 712 714 717 719 719 719 719 718 719 720 721 721 721 725 725 724 724 723 720 720 722 722 722 720 720 722 722 725 727 727 728 729 729 732 732 732 732 732 730 732 732 730 730 731 739 742 745 745 750 754 755 752 750 750 750 751 752 754 754 755 754 754 753 753 752 751 748 744 744 745 749 755 759 759 759 758 760 761 760 760 760 761 762 764 764 764 765 766 767 767 768 768 769 769 769 770 772 771 771 773 773 775 775 774 773 773 774 775 776 775 775 775 775 774 775 775 776 778 776 773 773 775 780 784 787 788 788 790 790 791 791 791 791 791 792 792 792 794 796 797 797 797 798 798 798 797 798 798 798 798 798 798 798 799 800 798 798 798 799 802 807 808 808 807 810 811 813 813 813 814 815 816 816 816 815 814 813 811 811 808 800 793 792 792 800 810 813 816 816 820 823 826 829 831 831 831 832 835 837 837 837 838 839 841 841 841 841 841 840 840 837 836 833 832 832 835 841 844 844 844 844 845 846 847 848 848 849 850 852 854 854 854 854 854 853 853 853 855 856 853 853 845 839 834 834 840 840 850 857 859 857 857 856 857 858 860 860 860 858 857 856 856 854 852 850 848 849 849 854 858 862 866 866 866 867 869 872 872 874 873 873 874 874 876 878 878 876 876 876 879 878 879 879 879 879 880 881 881 881 884 884 885 886 886 887 887 888 889 889 888 888 888 889 892 892 893 894 895 895 895 897 898 897 896 896 896 896 896 897 897 898 898 897 897 897 895 894 893 893 894 894 894 892 893 895 895 896 897 898 900 900 901 901 900 900 900 900 898 890 885 882 882 874 870 871 874 874 876 879 881 877 877 872 861 857 858 858 863 869 876 880 880 881 881 881 883 883 883 880 875 866 867 867 869 871 871 869 869 865 859 860 863 863 862 862 863 864 864 862 856 847 840 839 839 842 846 854 860 860 865 867 868 869 869 868 865 864 864 864 862 856 849 842 840 840 844 848 850 847 847 844 842 842 837 837 835 837 842 845 845 842 836 834 834 834 835 838 840 841 840 840 847 853 854 855 855 866 873 876 875 875 875 873 872 873 873 874 879 888 897 904 904 911 919 926 926 926 923 918 910 899 899 893 888 887 892 892 900 909 913 910 910 903 894 886 880 871 871 863 862 865 866 866 867 861 854 848 848 846 844 840 838 838 840 846 849 850 854 854 858 860 862 862 862 867 870 872 875 875 878 880 883 886 886 885 886 890 894 894 898 903 909 914 917 917 919 919 917 915 915 909 902 904 914 914 924 926 930 931 931 926 923 926 932 939 939 948 955 959 959 959 955 949 941 934 934 933 934 931 930 930 930 931 938 949 949 957 965 975 981 988
693 694 694 693 694 694 694 694 695 695 695 696 697 699 702 702 704 704 704 706 706 708 709 709 710 711 711 711 713 715 716 716 716 716 718 719 719 721 723 725 722 722 716 712 713 713 713 714 715 717 719 718 718 716 714 716 715 715 717 719 720 720 720 719 717 719 720 720 720 720 720 721 721 723 725 727 729 735 735 738 738 739 738 738 738 737 736 735 735 738 743 746 747 747 751 754 756 754 752 752 752 752 752 753 753 754 751 751 750 750 749 751 751 751 751 754 754 757 759 759 757 757 759 761 762 762 762 762 763 764 764 764 765 766 768 768 768 768 768 769 769 770 770 771 771 773 773 775 775 774 773 773 774 774 775 774 774 774 774 774 774 774 775 776 775 775 775 779 782 785 786 787 787 788 789 789 789 789 790 791 792 791 791 792 794 796 796 796 796 796 795 795 795 795 796 796 797 797 797 797 798 797 797 797 800 804 808 808 808 807 808 811 812 812 812 813 814 814 811 811 809 809 808 805 805 801 794 791 796 796 805 812 816 818 818 823 826 827 828 829 829 830 831 833 834 834 836 837 838 840 840 839 839 839 837 837 834 831 831 834 834 838 841 844 843 842 842 843 844 846 848 848 848 849 852 852 852 851 852 853 853 853 853 852 853 848 848 839 834 831 832 840 840 849 855 858 857 857 856 857 858 859 859 859 857 855 852 852 850 849 848 843 850 850 855 859 863 866 866 865 866 870 872 872 872 873 874 874 874 876 877 876 875 875 876 876 877 878 878 878 878 878 878 880 880 881 881 882 883 883 883 886 888 888 888 887 886 887 888 890 890 892 893 893 895 895 896 896 895 895 895 896 896 896 895 895 895 895 895 896 896 894 892 891 892 892 892 892 892 892 892 892 892 893 896 899 899 900 900 900 900 900 900 898 892 889 886 886 882 874 872 871 871 871 873 871 867 867 861 854 854 858 858 864 872 878 883 883 882 880 880 881 882 882 880 874 868 866 866 864 866 868 867 867 864 865 868 868 868 868 867 867 865 865 863 861 856 845 838 838 836 839 846 852 852 857 862 864 863 863 861 859 860 861 861 856 848 839 833 832 832 840 849 845 842 842 840 838 836 834 834 832 836 845 846 846 843 837 836 837 837 839 844 850 851 856 856 862 865 868 872 872 878 880 878 875 875 872 868 864 866 866 873 881 890 900 905 905 911 916 921 921 921 918 915 907 894 894 889 884 885 891 891 903 913 912 906 906 899 889 883 876 867 867 860 857 857 856 856 855 849 843 838 838 837 837 838 841 841 846 852 855 860 868 868 871 872 872 875 875 880 885 882 883 883 885 885 889 890 890 889 891 895 900 900 904 908 913 916 917 917 916 914 912 907 907 901 893 897 912 912 920 924 926 926 926 923 921 925 932 940 940 947 952 956 955 955 951 945 937 930 930 929 926 924 925 925 929 933 941 955 955 964 971 977 984 988
693 693 694 694 693 693 692 693 695 696 696 697 699 700 703 703 704 704 705 707 707 709 709 710 710 711 711 712 714 717 717 717 717 719 720 720 720 721 722 724 721 721 720 719 718 717 717 718 717 719 719 718 718 715 712 712 711 711 710 715 717 718 718 717 718 720 721 721 722 721 720 722 722 722 724 728 733 739 739 741 740 740 741 741 741 740 740 742 742 744 747 748 749 749 751 753 754 753 752 752 751 750 750 750 750 749 748 747 748 748 749 752 757 760 760 761 760 759 758 758 758 758 759 760 762 762 763 763 764 764 764 763 764 766 767 767 767 766 767 768 768 770 770 770 771 773 773 774 774 774 773 773 773 774 775 776 776 775 774 774 774 774 774 773 775 780 780 782 784 785 785 786 786 787 788 787 789 789 791 792 792 791 791 792 793 794 794 794 795 795 793 793 794 794 794 795 796 796 796 797 798 798 798 798 801 806 808 807 807 806 807 809 811 811 810 811 812 811 807 807 804 802 801 798 798 795 791 793 799 799 807 815 819 823 823 825 828 828 828 829 829 831 832 832 833 833 835 836 837 838 838 838 837 839 837 837 830 826 829 835 835 841 843 844 842 841 841 841 843 845 847 847 847 847 848 848 848 848 849 851 852 852 853 852 850 842 842 834 829 827 830 838 838 849 855 856 856 856 856 857 857 856 856 857 856 853 849 849 848 849 848 848 852 852 859 861 864 865 865 865 868 871 871 871 871 873 874 875 875 875 876 875 875 875 875 875 876 876 876 876 876 876 877 878 878 879 879 880 881 881 884 885 885 885 885 884 883 885 887 890 890 892 892 892 894 894 894 893 894 895 895 896 896 895 894 894 894 895 895 895 895 894 892 891 891 891 891 891 891 890 890 890 891 892 894 897 897 899 899 899 899 899 899 897 893 890 889 889 886 882 876 870 870 866 865 862 858 858 852 849 852 860 860 870 877 881 884 884 883 879 879 880 881 881 881 878 876 873 873 871 867 870 870 870 868 868 868 869 869 869 869 868 866 866 865 863 859 849 835 835 829 831 838 845 845 849 855 858 856 856 853 853 855 857 857 850 840 833 828 829 829 837 840 837 835 835 834 832 831 832 832 833 839 846 848 848 846 840 838 844 844 854 859 862 865 869 869 875 879 879 881 881 882 881 878 873 873 868 863 860 865 865 874 882 890 899 906 906 909 909 913 913 913 912 910 892 888 888 882 880 884 890 890 898 906 907 900 900 892 886 880 873 866 866 859 852 850 848 848 846 842 837 833 833 835 839 842 848 848 854 862 864 871 877 877 881 883 883 886 886 892 894 892 889 889 889 891 893 893 893 891 896 900 904 904 906 911 913 914 914 914 912 910 904 898 898 890 887 895 909 909 917 920 922 920 920 918 918 925 933 939 939 945 949 952 950 950 946 939 931 926 926 923 922 920 925 925 931 939 949 961 961 969 972 977 981 984
693 692 693 694 693 693 693 695 698 700 700 700 700 702 703 703 704 705 706 707 707 709 710 711 712 712 712 713 714 717 718 718 719 720 720 720 720 720 721 721 721 721 722 723 721 722 722 722 721 720 719 718 718 716 712 713 711 711 711 714 718 720 720 721 722 723 726 726 725 724 725 726 726 725 725 729 737 741 741 741 742 741 742 742 743 744 744 744 744 746 749 750 750 750 751 753 753 752 750 750 748 748 746 745 745 748 747 749 752 752 755 756 760 761 761 763 762 761 759 759 760 761 761 761 762 762 763 763 764 764 764 763 762 764 765 765 766 766 766 768 768 769 769 771 772 773 773 773 773 773 773 773 774 775 777 777 777 776 774 773 773 773 770 771 775 778 778 782 785 785 784 785 785 786 787 787 788 788 791 791 791 791 791 791 792 792 793 793 794 794 792 792 792 792 792 794 795 796 796 797 799 799 799 799 803 807 808 806 806 806 807 809 809 809 808 808 811 808 803 803 798 796 794 793 793 790 789 794 802 802 809 816 822 825 825 826 827 828 828 830 830 832 832 833 834 834 835 835 835 836 836 835 836 838 833 833 826 823 827 835 835 839 842 843 843 843 843 844 843 845 848 848 848 847 847 847 847 847 848 850 853 853 851 848 846 838 838 829 824 826 833 840 840 849 854 855 855 855 855 856 854 853 853 855 853 848 847 847 846 849 853 854 857 857 860 862 863 865 865 866 866 868 869 869 870 872 874 874 874 873 872 873 874 874 874 875 875 874 875 875 875 874 875 877 877 878 879 879 881 881 882 882 881 882 882 882 883 885 887 888 888 889 891 892 892 892 892 892 893 894 894 894 894 894 892 892 893 894 894 895 895 894 892 891 890 889 889 889 888 888 888 888 888 889 891 895 895 898 897 895 896 896 897 897 894 892 889 889 887 884 880 876 876 870 862 857 850 850 847 847 853 862 862 871 877 882 883 883 881 877 876 877 880 880 881 879 877 877 877 876 876 873 873 873 870 868 867 868 868 869 869 868 868 868 867 863 859 849 834 834 825 822 830 839 839 843 848 849 847 847 845 847 852 852 852 843 832 825 823 828 828 834 834 828 826 826 823 823 828 832 832 836 839 845 850 850 852 851 853 856 856 861 865 868 873 877 877 881 883 884 885 885 884 881 876 871 871 864 860 862 869 869 879 885 893 902 905 905 905 904 904 905 905 906 896 890 884 884 879 877 880 883 883 889 895 896 891 891 886 881 877 873 866 866 857 848 844 842 842 840 834 832 832 832 839 845 849 854 854 865 870 874 880 884 884 886 889 890 894 894 899 901 901 902 902 899 897 898 895 895 894 899 904 906 906 909 912 914 912 911 911 910 905 898 891 891 883 881 893 907 907 915 918 917 914 914 913 915 925 932 940 940 945 948 948 946 946 941 932 926 920 920 917 920 923 931 931 941 948 958 969 969 972 973 974 976 978
692 692 692 692 693 693 693 696 699 701 701 701 701 702 704 704 704 705 706 707 707 709 710 712 713 713 713 712 713 716 718 718 719 719 719 719 719 720 721 722 722 722 722 723 724 726 726 726 725 722 720 722 722 721 718 719 718 718 717 719 723 725 725 726 727 729 731 731 731 728 730 731 731 728 728 732 737 741 741 742 743 742 743 743 745 747 747 746 746 746 748 749 750 750 751 751 751 751 748 748 745 742 741 743 743 747 751 753 757 757 759 760 761 763 763 763 763 762 761 761 761 761 761 761 761 761 762 763 764 764 764 764 762 762 765 765 767 767 767 768 768 768 769 772 772 772 772 772 772 772 773 773 774 775 777 777 777 775 773 772 771 771 769 769 771 774 774 781 784 785 784 785 785 785 785 786 788 788 789 789 789 789 789 790 791 792 791 791 792 792 792 791 791 791 791 793 795 795 795 797 798 799 799 799 802 807 808 806 806 805 807 807 807 807 805 807 808 805 799 799 793 791 788 788 788 787 788 795 804 804 812 818 823 825 825 825 825 827 829 830 830 831 832 833 834 834 835 834 834 834 834 834 835 835 828 828 823 823 827 832 832 835 837 838 842 845 845 845 843 844 847 847 848 847 848 848 848 849 849 851 852 852 849 845 841 832 832 825 825 833 840 846 846 851 853 854 854 854 854 855 854 853 853 852 848 843 843 843 844 847 851 855 857 857 860 862 863 865 865 865 863 865 867 867 869 871 873 873 873 871 871 872 873 873 873 873 873 873 874 874 873 873 874 875 875 877 879 876 879 879 881 881 880 881 881 881 882 884 885 884 884 887 890 891 890 890 890 890 892 892 892 891 891 891 891 891 890 890 892 893 893 893 891 890 888 887 887 887 887 887 886 886 886 886 888 892 892 894 893 893 894 894 895 895 894 894 892 892 889 884 883 882 882 878 870 858 848 848 845 846 851 860 860 869 875 880 880 880 878 875 874 875 877 877 879 877 875 876 876 876 876 874 873 873 871 869 869 870 870 869 868 867 867 867 866 863 857 850 837 837 823 818 821 829 829 833 835 838 838 838 839 844 847 845 845 836 825 818 817 823 823 828 824 817 819 819 819 821 827 831 831 837 840 846 853 853 860 866 868 867 867 868 868 871 877 881 881 883 884 885 885 885 882 878 873 867 867 861 861 868 878 878 884 890 898 901 899 899 897 895 894 896 896 897 893 889 884 884 877 874 875 879 879 882 883 883 879 879 876 875 872 870 864 864 854 845 839 837 837 834 828 827 833 833 842 850 857 865 865 875 880 881 885 886 886 891 894 897 899 899 903 905 908 909 909 906 903 900 899 899 898 901 903 906 906 911 913 915 913 910 910 907 900 891 887 887 885 887 896 906 906 913 915 913 911 911 911 916 924 932 938 938 944 947 948 944 944 937 928 922 916 916 916 922 928 936 936 946 953 960 967 967 971 971 971 970 971
692 692 692 692 693 693 693 696 699 701 701 701 701 702 704 704 704 705 706 707 707 709 710 712 713 713 713 712 713 716 718 718 719 719 719 719 719 720 721 722 722 722 722 723 724 726 726 726 725 722 720 722 722 721 718 719 718 718 717 719 723 725 725 726 727 729 731 731 731 728 730 731 731 728 728 732 737 741 741 742 743 742 743 743 745 747 747 746 746 746 748 749 750 750 751 751 751 751 748 748 745 742 741 743 743 747 751 753 757 757 759 760 761 763 763 763 763 762 761 761 761 761 761 761 761 761 762 763 764 764 764 764 762 762 765 765 767 767 767 768 768 768 769 772 772 772 772 772 772 772 773 773 774 775 777 777 777 775 773 772 771 771 769 769 771 774 774 781 784 785 784 785 785 785 785 786 788 788 789 789 789 789 789 790 791 792 791 791 792 792 792 791 791 791 791 793 795 795 795 797 798 799 799 799 802 807 808 806 806 805 807 807 807 807 805 807 808 805 799 799 793 791 788 788 788 787 788 795 804 804 812 818 823 825 825 825 825 827 829 830 830 831 832 833 834 834 835 834 834 834 834 834 835 835 828 828 823 823 827 832 832 835 837 838 842 845 845 845 843 844 847 847 848 847 848 848 848 849 849 851 852 852 849 845 841 832 832 825 825 833 840 846 846 851 853 854 854 854 854 855 854 853 853 852 848 843 843 843 844 847 851 855 857 857 860 862 863 865 865 865 863 865 867 867 869 871 873 873 873 871 871 872 873 873 873 873 873 873 874 874 873 873 874 875 875 877 879 876 879 879 881 881 880 881 881 881 882 884 885 884 884 887 890 891 890 890 890 890 892 892 892 891 891 891 891 891 890 890 892 893 893 893 891 890 888 887 887 887 887 887 886 886 886 886 888 892 892 894 893 893 894 894 895 895 894 894 892 892 889 884 883 882 882 878 870 858 848 848 845 846 851 860 860 869 875 880 880 880 878 875 874 875 877 877 879 877 875 876 876 876 876 874 873 873 871 869 869 870 870 869 868 867 867 867 866 863 857 850 837 837 823 818 821 829 829 833 835 838 838 838 839 844 847 845 845 836 825 818 817 823 823 828 824 817 819 819 819 821 827 831 831 837 840 846 853 853 860 866 868 867 867 868 868 871 877 881 881 883 884 885 885 885 882 878 873 867 867 861 861 868 878 878 884 890 898 901 899 899 897 895 894 896 896 897 893 889 884 884 877 874 875 879 879 882 883 883 879 879 876 875 872 870 864 864 854 845 839 837 837 834 828 827 833 833 842 850 857 865 865 875 880 881 885 886 886 891 894 897 899 899 903 905 908 909 909 906 903 900 899 899 898 901 903 906 906 911 913 915 913 910 910 907 900 891 887 887 885 887 896 906 906 913 915 913 911 911 911 916 924 932 938 938 944 947 948 944 944 937 928 922 916 916 916 922 928 936 936 946 953 960 967 967 971 971 971 970 971
